# .PCD v.7 - Point Cloud Data file format
VERSION .7
FIELDS x y z rgb
SIZE 4 4 4 4
TYPE F F F U
COUNT 1 1 1 1
WIDTH 1619
HEIGHT 1
VIEWPOINT 0 0 0 1 0 0 0
POINTS 1619               
DATA ascii
-18.275957 2.0876677 -1.5016627 0
-0 0 0 0
-25.605133 2.9286542 0.44985324 0
-0 0 0 0
-21.439552 3.52367 -1.2653377 0
-36.954662 2.411341 2.1567252 0
-25.710043 2.9482307 1.0543185 0
-0 0 0 0
-24.243229 2.7835999 -1.2788814 0
-36.871395 2.416679 4.536952 0
-53.47668 6.1480565 4.3943324 0
-0 0 0 0
-0 0 0 0
-29.065538 1.9135473 7.804947 0
-24.080952 2.7756138 4.4196486 0
-37.216976 2.455639 -0.8679012 0
-3.507219 0.408901 -1.6465207 0
-0 0 0 0
-25.555569 2.9832501 -0.7487903 0
-0 0 0 0
-8.099369 0.9466805 -1.6309114 0
-0 0 0 0
-23.446102 3.9130158 -0.27673182 0
-0 0 0 0
-12.106814 1.4186536 -1.5515839 0
-0 0 0 0
-25.619835 3.0058613 -0.14992413 0
-0 0 0 0
-15.763326 2.637876 -1.4919382 0
-0 0 0 0
-23.589779 3.9511023 0.27845472 0
-0 0 0 0
-18.236883 2.1477196 -1.4990591 0
-0 0 0 0
-25.67022 3.0269136 0.45117962 0
-0 0 0 0
-21.36805 3.588566 -1.2618493 0
-0 0 0 0
-53.347996 6.3062835 2.1885862 0
-0 0 0 0
-24.082624 2.8503664 -1.2709264 0
-0 0 0 0
-49.333538 5.846285 4.055531 0
-0 0 0 0
-23.30886 3.9284518 -0.8254429 0
-25.809381 1.7896796 6.9322095 0
-24.00078 2.851299 4.406734 0
-36.86909 2.5619726 -0.8599918 0
-3.4949722 0.41984385 -1.6414493 0
-40.288273 0.8790932 -0.7034018 0
-25.608515 3.0800767 -0.75065213 0
-5.9362893 0.42117956 -1.6659757 0
-8.084332 0.97353995 -1.628558 0
-36.862953 2.620814 0 0
-23.420471 3.9928176 -0.27659214 0
-10.274054 0.7319475 -1.6024549 0
-12.097849 1.46043 -1.5510789 0
-40.373188 0.90444577 0.23470832 0
-37.89556 4.580274 -0.22185236 0
-0 0 0 0
-15.734393 2.689529 -1.4900793 0
-36.907288 2.6455472 0.8610153 0
-27.356651 4.680253 0.3231099 0
-21.273115 1.5279858 -1.4913934 0
-18.209486 2.2089646 -1.4974318 0
-0 0 0 0
-53.363655 6.481338 0.93831116 0
-23.661116 0.54727536 -1.516817 0
-21.3121 3.6557064 -1.2592912 0
-36.94091 2.6695602 2.1569576 0
-53.405006 6.5021253 2.1918428 0
-27.852793 2.0168731 -1.300824 0
-24.005121 2.926196 -1.2673675 0
-37.051613 2.6883945 4.5613256 0
-49.471127 6.037775 4.068549 0
-30.28236 0.7180502 -1.2340819 0
-23.26743 4.005044 -0.8244657 0
-24.038078 1.7511865 6.4580526 0
-38.56789 4.71846 7.0843525 0
-36.899803 2.6935654 -0.8609223 0
-3.4754963 0.4298163 -1.6329969 0
-40.021084 1.0130408 -0.69879436 0
-34.140755 4.226993 -1.0011798 0
-5.9078975 0.43985343 -1.6584276 0
-8.080899 1.001636 -1.628558 0
-36.953342 2.756376 0 0
-23.449825 4.0815797 -0.27710435 0
-10.232038 0.76463664 -1.5963058 0
-12.073032 1.4998529 -1.5485535 0
-40.4098 1.045229 0.2349408 0
-37.96684 4.72201 -0.22236381 0
-0 0 0 0
-15.7014885 2.7396424 -1.4878486 0
-36.993652 2.7799435 0.8632486 0
-27.31675 4.7701974 0.32283053 0
-21.28365 1.6023492 -1.4925095 0
-18.150368 2.2650373 -1.4932008 0
-40.424774 1.0679737 1.1768867 0
-53.45623 6.6784596 0.94033563 0
-0 0 0 0
-21.220812 3.7147572 -1.2546401 0
-37.03908 2.8039448 2.1632366 0
-53.485626 6.697144 2.1960764 0
-27.82583 2.110347 -1.2998935 0
-23.963314 3.0039032 -1.2656927 0
-34.25923 2.6030254 4.2186294 0
-49.497803 6.2117066 4.0724545 0
-30.303719 0.82153827 -1.2350589 0
-23.273409 4.087328 -0.8251637 0
-24.032005 1.8326377 6.4580526 0
-34.28424 4.3121104 6.300152 0
-36.890484 2.8183293 -0.8609223 0
-3.4596665 0.4395116 -1.6262351 0
-39.90157 1.1424305 -0.6967699 0
-34.150288 4.343708 -1.001878 0
-5.990886 0.46610144 -1.6821502 0
-8.069722 1.0276717 -1.626989 0
-36.98778 2.883397 0 0
-27.319004 4.8496547 -0.32301676 0
-10.229411 0.79900944 -1.5963058 0
-12.056095 1.5390749 -1.5470383 0
-40.338074 1.17959 0.23454559 0
-38.018066 4.8592677 -0.22275902 0
-0 0 0 0
-15.676389 2.7902732 -1.4863615 0
-37.01986 2.9086502 0.8640861 0
-27.304224 4.864238 0.32287708 0
-21.278048 1.6750858 -1.4925095 0
-18.095034 2.3212376 -1.4892954 0
-28.930855 0.86370164 0.8423455 0
-38.045647 4.886415 0.6695441 0
-23.529116 0.7060346 -1.5086304 0
-21.14886 3.7776597 -1.2511517 0
-0 0 0 0
-53.56905 6.896805 2.2004728 0
-27.806377 2.2061117 -1.2993351 0
-23.85364 3.0747657 -1.2604592 0
-34.17474 2.716619 4.2093673 0
-45.229187 5.8371243 3.7229128 0
-29.973078 0.9177239 -1.2217069 0
-23.329706 4.181915 -0.8276765 0
-29.4213 2.347802 7.908475 0
-24.313238 3.1453333 4.469872 0
-37.079605 2.9646285 -0.8655749 0
-3.461627 0.452659 -1.6279255 0
-39.39745 1.2725304 -0.68804365 0
-34.070736 4.460294 -1.0000162 0
-5.9469104 0.48457134 -1.6702889 0
-8.058139 1.0561051 -1.6254201 0
-37.068703 3.0258918 0 0
-27.293283 4.947729 -0.32292366 0
-10.206736 0.8346629 -1.5932313 0
-12.034682 1.5808347 -1.545018 0
-39.294098 1.2920768 0.2285012 0
-38.087433 5.00867 -0.22327048 0
-0 0 0 0
-15.646588 2.843467 -1.4845027 0
-37.08082 3.0485983 0.86576104 0
-27.376974 4.979353 0.32394806 0
-21.271854 1.7519796 -1.4925095 0
-18.054924 2.382319 -1.4866916 0
-28.895584 0.9669799 0.84141463 0
-45.1211 5.9603357 0.79443353 0
-23.654087 0.79501945 -1.516817 0
-21.036942 3.8357046 -1.2453378 0
-37.173588 3.077999 2.1723063 0
-45.24732 5.990401 1.8595085 0
-0 0 0 0
-23.818726 3.1569433 -1.2592031 0
-34.208324 2.8424923 4.2147293 0
-0 0 0 0
-28.998981 0.99155295 -1.1821394 0
-0 0 0 0
-27.04479 2.2551703 7.27178 0
-0 0 0 0
-37.06883 3.0964687 -0.8655749 0
-3.4923627 0.46908295 -1.6431398 0
-28.93306 1.0356451 -0.5053519 0
-33.987595 4.5701375 -0.99803805 0
-5.937506 0.5046745 -1.6681323 0
-8.054403 1.0842268 -1.6254201 0
-37.157555 3.1637511 0 0
-27.350574 5.0567865 -0.32380837 0
-10.199821 0.8699501 -1.5926164 0
-12.013361 1.6207119 -1.5429977 0
-39.10947 1.4226875 0.22745505 0
-38.152958 5.152832 -0.22375868 0
-0 0 0 0
-15.609156 2.892986 -1.4819002 0
-37.16159 3.185872 0.8679012 0
-27.414482 5.0850983 0.32459995 0
-21.26561 1.8262216 -1.4925095 0
-18.018845 2.4415808 -1.4844135 0
-28.892033 1.0678384 0.84141463 0
-38.152714 5.175402 0.6720573 0
-23.451715 0.87018204 -1.5040255 0
-20.940979 3.893784 -1.2404542 0
-37.20638 3.2115178 2.1748645 0
-0 0 0 0
-27.813955 2.4048738 -1.3004519 0
-23.728401 3.2292936 -1.2550162 0
-0 0 0 0
-23.914778 3.2582011 1.9703221 0
-29.558477 1.1139956 -1.2050984 0
-25.916855 4.8346033 -0.9206487 0
-27.009808 2.347219 7.264533 0
-24.208591 3.305404 4.454805 0
-37.03389 3.2237632 -0.8650166 0
-3.5373902 0.48770747 -1.665116 0
-29.109102 1.1436998 -0.5084933 0
-33.89222 4.677815 -0.9957108 0
-5.928035 0.524718 -1.6659757 0
-8.042798 1.1112617 -1.6238512 0
-37.210037 3.299088 0 0
-33.72769 6.357673 -0.39956853 0
-10.1888485 0.9048496 -1.5913866 0
-11.987978 1.6599153 -1.5404724 0
-28.904543 1.1525049 0.16812705 0
-38.23379 5.299709 -0.22433987 0
-0 0 0 0
-15.5715685 2.9422784 -1.4792978 0
-37.217957 3.321614 0.8694831 0
-37.025253 7.0015717 0.4386826 0
-21.088205 1.8851638 -1.4805114 0
-17.98257 2.5006196 -1.4821353 0
-28.904108 1.1693305 0.8418801 0
-38.34436 5.337774 0.67575717 0
-23.448534 0.95203847 -1.5040255 0
-20.899796 3.961652 -1.2388263 0
-37.262554 3.3474467 2.178818 0
-53.797977 7.5049667 2.2130105 0
-27.861105 2.5069613 -1.3030576 0
-23.622036 3.298842 -1.249992 0
-34.69773 3.127213 4.277614 0
-23.87562 3.3377957 1.9680439 0
-0 0 0 0
-25.919458 4.928775 -0.9213467 0
-29.448782 2.6627755 7.9229684 0
-24.208597 3.3915255 4.4569573 0
-37.245438 3.373215 -0.8702276 0
-3.5141294 0.49700627 -1.6549731 0
-28.985062 1.2401736 -0.50639904 0
-27.798914 3.9355419 -0.8170949 0
-5.926171 0.5453644 -1.6659757 0
-8.035004 1.1386622 -1.6230667 0
-37.28199 3.4361234 0 0
-33.520824 6.439168 -0.39738002 0
-10.16597 0.9383711 -1.588312 0
-11.974303 1.7002869 -1.5394622 0
-28.832445 1.2496086 0.16773184 0
-27.562506 3.917613 -0.16180368 0
-0 0 0 0
-15.5417795 2.9921718 -1.4774389 0
-37.285923 3.4572694 0.87134415 0
-36.81636 7.0933228 0.43649405 0
-21.053783 1.955108 -1.4785582 0
-17.934412 2.556703 -1.4788806 0
-38.410736 1.6860046 1.1189383 0
-27.663506 3.947568 0.48775986 0
-23.445137 1.0323489 -1.5040255 0
-20.846926 4.0254917 -1.2365007 0
-37.330414 3.4822054 2.183469 0
-54.11628 7.7376256 2.2271767 0
-27.852392 2.6019714 -1.3030576 0
-23.460413 3.3577123 -1.2420369 0
-34.81338 3.2571194 4.2932134 0
-23.95097 3.4312992 1.975204 0
-28.711634 1.2801459 -1.1709042 0
-25.882982 5.012783 -0.9206487 0
-0 0 0 0
-24.48913 3.5153046 4.510768 0
-37.233818 3.4991436 -0.8702276 0
-3.4945228 0.506059 -1.6465207 0
-28.773043 1.3267056 -0.50276893 0
-27.750097 4.0225425 -0.81604767 0
-5.9128265 0.56391615 -1.6627408 0
-8.031183 1.165301 -1.6230667 0
-37.350025 3.5673423 0 0
-33.33835 6.5188217 -0.3954709 0
-10.14313 0.97019583 -1.5852375 0
-11.945039 1.7365606 -1.5364318 0
-28.80417 1.3440949 0.16759235 0
-27.592903 4.0153284 -0.1620594 0
-0 0 0 0
-15.504413 3.0383322 -1.4748365 0
-37.226486 3.576306 0.8702276 0
-36.608162 7.1791945 0.43430552 0
-21.047186 2.0249143 -1.4785582 0
-17.894276 2.6115558 -1.476277 0
-38.15332 1.8014896 1.1116074 0
-27.67005 4.0421724 0.4881089 0
-23.441584 1.11009 -1.5040255 0
-20.806034 4.08921 -1.2348728 0
-48.37634 4.674445 2.83044 0
-23.90525 3.49894 0.98430204 0
-25.668142 2.4838073 -1.2012475 0
-23.445196 3.4349122 -1.2418276 0
-34.999973 3.3916938 4.317587 0
-23.98285 3.5170677 1.978784 0
-28.599443 1.370186 -1.1665078 0
-25.862295 5.097813 -0.9205091 0
-20.969978 2.0379581 5.645361 0
-39.01891 5.7331104 7.190539 0
-0 0 0 0
-3.4928255 0.51764446 -1.6465207 0
-0 0 0 0
-0 0 0 0
-5.8572536 0.5782654 -1.6476446 0
-8.015618 1.1903152 -1.6207132 0
-37.397648 3.6976266 0 0
-33.15164 6.5972795 -0.39351517 0
-10.1319685 1.0032686 -1.5840076 0
-11.923464 1.7741735 -1.5344114 0
-28.847452 1.442841 0.16787131 0
-27.452686 4.0889535 -0.16131547 0
-0 0 0 0
-15.478495 3.08729 -1.4733493 0
-48.10556 4.7846146 1.1249124 0
-0 0 0 0
-20.9251 2.0842996 -1.4704665 0
-17.845932 2.6660311 -1.4730225 0
-37.90344 1.9178946 1.1045094 0
-27.74324 4.1487303 0.4896447 0
-23.238361 1.1792378 -1.491234 0
-20.482721 4.097809 -1.2165009 0
-48.558887 4.8582344 2.842068 0
-0 0 0 0
-25.524384 2.557421 -1.1949192 0
-23.322762 3.4980955 -1.235966 0
-26.305363 2.6395357 3.2461119 0
-24.029852 3.6077232 1.9836658 0
-28.510784 1.4634186 -1.1630884 0
-25.836882 5.184606 -0.9202299 0
-29.374187 2.9560988 7.9105453 0
-37.07672 5.577544 6.8361063 0
-37.40832 3.7701175 -0.8748802 0
-3.5089183 0.53255343 -1.6549731 0
-28.751364 1.521891 -0.5025595 0
-27.559973 4.1869164 -0.8112768 0
-0 0 0 0
-8.003659 1.2171084 -1.6191443 0
-37.49195 3.8391478 0 0
-27.475689 5.567523 -0.3263694 0
-10.120542 1.0378233 -1.5827779 0
-11.893662 1.8121972 -1.531381 0
-37.865177 2.0264025 0.22038777 0
-27.426384 4.182947 -0.16124573 0
-0 0 0 0
-15.436399 3.13496 -1.4703752 0
-48.215855 4.9656143 1.1278901 0
-27.296062 5.547659 0.324274 0
-20.878006 2.1532354 -1.4676762 0
-17.797108 2.7222807 -1.4697678 0
-37.652973 2.0370152 1.0974113 0
-0 0 0 0
-23.234104 1.2603476 -1.491234 0
-20.589592 4.1939898 -1.2237101 0
-48.541634 5.027707 2.842068 0
-23.726519 3.6398504 0.9779517 0
-25.352352 2.6296008 -1.1872882 0
-23.235392 3.5679665 -1.2319884 0
-26.295988 2.7313423 3.2461119 0
-43.28597 6.6533256 3.575155 0
-28.481558 1.561618 -1.1621114 0
-25.75596 5.261959 -0.91799635 0
-29.413647 3.0638196 7.924004 0
-0 0 0 0
-37.39493 3.9006739 -0.8748802 0
-3.5070379 0.5447986 -1.6549731 0
-28.757854 1.6229188 -0.50276893 0
-27.513584 4.2781787 -0.8103459 0
-5.8569045 0.61954755 -1.6487229 0
-7.995486 1.2444358 -1.6183599 0
-0 0 0 0
-32.77573 6.7606854 -0.38960376 0
-10.116857 1.0731443 -1.5827779 0
-11.8676605 1.8506459 -1.5288557 0
-37.430573 2.1342006 0.21790026 0
-0 0 0 0
-0 0 0 0
-15.401961 3.1839862 -1.4681445 0
-25.357653 2.700999 0.5933962 0
-27.311783 5.650199 0.32469308 0
-20.850523 2.223984 -1.466281 0
-17.752048 2.7788384 -1.4668387 0
-37.42609 2.1557903 1.0910114 0
-23.643883 3.704647 0.4177408 0
-23.229563 1.3414421 -1.491234 0
-20.563097 4.2634034 -1.2230124 0
-25.677387 2.7501647 1.5039402 0
-23.729462 3.7251287 0.978603 0
-25.327127 2.7163765 -1.1865437 0
-23.072844 3.625489 -1.2240334 0
-26.148132 2.8082776 3.2290502 0
-24.00408 3.775394 1.9836658 0
-28.499872 1.6624241 -1.1630884 0
-25.647417 5.3331137 -0.9147856 0
-29.29137 3.1544764 7.893981 0
-28.034212 4.4176154 5.1744328 0
-37.579884 4.052621 -0.8795328 0
-3.5230162 0.55988204 -1.6634254 0
-37.483013 2.2465973 -0.6554426 0
-27.490585 4.3729367 -0.8101132 0
-5.8661933 0.6412439 -1.6519579 0
-7.9833465 1.2711041 -1.6167909 0
-25.714413 2.8146722 0 0
-27.37352 5.746055 -0.32562438 0
-0 0 0 0
-11.845455 1.8895602 -1.5268353 0
-37.231247 2.2532463 0.21678439 0
-23.592758 3.7669823 -0.13885824 0
-0 0 0 0
-15.379061 3.23527 -1.4670292 0
-25.415644 2.7969337 0.5949781 0
-27.331034 5.75374 0.32515875 0
-20.818836 2.29413 -1.4646069 0
-17.710747 2.8357453 -1.4642351 0
-37.174896 2.2715433 1.0839133 0
-23.615011 3.7846255 0.41746157 0
-23.22474 1.4225203 -1.491234 0
-20.395708 4.303007 -1.2139428 0
-25.643816 2.8371441 1.5025449 0
-23.763668 3.8155403 0.98055696 0
-25.269835 2.7994885 -1.1843102 0
-23.036385 3.7022033 -1.2227772 0
-26.161846 2.902161 3.231975 0
-23.98682 3.8585277 1.9833404 0
-28.469961 1.7604171 -1.1621114 0
-21.901482 4.634 -0.7817487 0
-34.702293 3.8597806 9.355791 0
-28.045816 4.519829 5.1794553 0
-25.495422 2.8394957 -0.5969322 0
-3.5353537 0.57450217 -1.6701874 0
-37.207523 2.3604584 -0.65076536 0
-23.48135 3.8192728 -0.69235474 0
-5.8524365 0.660421 -1.6487229 0
-7.9749894 1.2983332 -1.6160065 0
-25.565317 2.8886962 0 0
-21.84978 4.6662407 -0.26010835 0
-10.042353 1.1361927 -1.5723244 0
-11.811373 1.9264259 -1.5232998 0
-0 0 0 0
-23.516302 3.8390021 -0.13848628 0
-0 0 0 0
-15.35599 3.286433 -1.4659139 0
-25.509033 2.8973677 0.59739745 0
-0 0 0 0
-20.810701 2.3667874 -1.4646069 0
-17.661398 2.8911097 -1.4609805 0
-36.91936 2.3853111 1.0766989 0
-23.60955 3.8683276 0.41760117 0
-23.020458 1.4906837 -1.4784424 0
-20.240007 4.3440084 -1.2055707 0
-25.665497 2.9302642 1.5044053 0
-43.355362 7.1165485 1.7899805 0
-24.974083 2.8550043 -1.1709092 0
-22.92872 3.7670505 -1.217753 0
-37.696896 4.3150144 4.658821 0
-43.406685 7.1379404 3.5911024 0
-28.419773 1.8569187 -1.1603203 0
-21.779655 4.6877112 -0.77797955 0
-29.168833 3.347437 7.8670635 0
-36.67296 6.0415807 6.7765555 0
-25.505219 2.9307563 -0.59739745 0
-3.5154455 0.5838695 -1.661735 0
-37.007515 2.4774995 -0.64741445 0
-23.392937 3.888757 -0.6901438 0
-0 0 0 0
-7.9665394 1.3255194 -1.615222 0
-25.559052 2.9783812 0 0
-21.880262 4.75267 -0.26066715 0
-10.057955 1.1735303 -1.5753989 0
-11.78892 1.965034 -1.5212796 0
-36.91929 2.493169 0.21506405 0
-23.490923 3.9190915 -0.13841654 0
-0 0 0 0
-15.33275 3.337474 -1.4647986 0
-25.606003 2.9989526 0.59990984 0
-0 0 0 0
-20.818165 2.441275 -1.465723 0
-17.643333 2.9514263 -1.4603295 0
-0 0 0 0
-23.639292 3.9579816 0.41836908 0
-23.254068 1.587342 -1.4937923 0
-20.017948 4.3694987 -1.1932453 0
-25.778053 3.034307 1.5116146 0
-43.40909 7.2810664 1.7932371 0
-0 0 0 0
-22.85634 3.8371434 -1.2146128 0
-37.91423 4.4740257 4.6875825 0
-43.499454 7.309233 3.600866 0
-0 0 0 0
-21.7944 4.770546 -0.77909636 0
-0 0 0 0
-28.133875 4.735763 5.201697 0
-0 0 0 0
-3.4812186 0.59067917 -1.6465207 0
-36.882946 2.5985138 -0.64539 0
-23.359539 3.966873 -0.689562 0
-0 0 0 0
-7.95415 1.3518895 -1.6136531 0
-0 0 0 0
-32.084644 7.085827 -0.38252598 0
-0 0 0 0
-11.770313 2.0038323 -1.5197643 0
-0 0 0 0
-23.504847 4.004915 -0.13857926 0
-0 0 0 0
-15.309489 3.387725 -1.4636832 0
-0 0 0 0
-32.053387 7.0975056 0.38220003 0
-20.793798 2.510956 -1.4646069 0
-17.554502 2.998544 -1.4538203 0
-0 0 0 0
-37.990967 6.494768 0.67275536 0
-22.949875 1.6455708 -1.4746051 0
-20.21731 4.4854636 -1.2060359 0
-45.874134 5.558827 2.691139 0
-43.486427 7.4466166 1.7974707 0
-0 0 0 0
-22.819527 3.9108617 -1.2133569 0
-23.883802 2.900832 2.9541128 0
-42.224846 7.2425942 3.4973705 0
-0 0 0 0
-21.824934 4.8547926 -0.78077155 0
-0 0 0 0
-28.00135 4.810883 5.180173 0
-0 0 0 0
-3.5256784 0.61025786 -1.6684968 0
-0 0 0 0
-23.346226 4.0444837 -0.689562 0
-0 0 0 0
-7.9380093 1.3763644 -1.6112996 0
-0 0 0 0
-31.924217 7.1622386 -0.38089624 0
-0 0 0 0
-11.747906 2.0404792 -1.5177441 0
-0 0 0 0
-27.34936 4.7543745 -0.16133872 0
-0 0 0 0
-15.266935 3.4321537 -1.460709 0
-0 0 0 0
-31.85761 7.1667647 0.3801512 0
-0 0 0 0
-17.512865 3.0522847 -1.4512167 0
-0 0 0 0
-27.409864 4.7813225 0.48566556 0
-0 0 0 0
-20.221472 4.5583415 -1.2071986 0
-0 0 0 0
-42.433323 7.414704 1.7549722 0
-24.800623 3.0942092 -1.1642088 0
-22.754932 3.9795568 -1.2106353 0
-23.818638 2.9752116 2.9472883 0
-50.623383 8.860993 4.1954775 0
-28.506748 2.1576102 -1.1647167 0
-25.259005 5.7093506 -0.90431577 0
-23.658194 2.96216 6.3886895 0
-28.000212 4.9094834 5.1830425 0
-36.71068 4.6018395 -0.8609223 0
-3.5092468 0.62003803 -1.661735 0
-0 0 0 0
-23.38315 4.135004 -0.6910747 0
-5.8045616 0.7362031 -1.6379399 0
-7.9254317 1.4026977 -1.6097307 0
-0 0 0 0
-31.743036 7.2380633 -0.37903365 0
-10.0218115 1.2740468 -1.5717094 0
-11.736805 2.080782 -1.517239 0
-0 0 0 0
-27.25383 4.835836 -0.16087377 0
-0 0 0 0
-15.239331 3.481876 -1.4592218 0
-37.763645 4.8175387 0.8858604 0
-31.680334 7.2431574 0.3783352 0
-20.704844 2.644394 -1.4595845 0
-17.478552 3.109208 -1.449264 0
-37.066322 2.9085038 1.0820515 0
-27.432383 4.8839817 0.48636365 0
-23.057411 1.812633 -1.4822799 0
-20.139265 4.6137404 -1.2032452 0
-45.438725 5.8235216 2.6678834 0
-54.805122 9.773793 2.2680469 0
-24.674738 3.1660137 -1.1588111 0
-22.760563 4.0624714 -1.2116821 0
-23.969557 3.0790758 2.9672747 0
-50.694183 9.055876 4.2039394 0
-28.36358 2.2463756 -1.1591805 0
-25.18048 5.784062 -0.9022218 0
-23.62855 3.0422575 6.383513 0
-27.99065 5.008579 5.184478 0
-36.694393 4.7299557 -0.8609223 0
-3.4999256 0.63099736 -1.658354 0
-37.05355 2.9942763 -0.6488805 0
-27.496143 4.9613757 -0.8131386 0
-5.8095956 0.75745624 -1.6400965 0
-7.9166274 1.429657 -1.6089462 0
-37.997673 4.959765 0 0
-31.59289 7.3199334 -0.3775436 0
-9.993789 1.3059489 -1.56802 0
-11.709947 2.118207 -1.5147136 0
-37.04486 3.0152676 0.2160172 0
-27.185616 4.921677 -0.16057155 0
-0 0 0 0
-15.211566 3.5314472 -1.4577348 0
-37.623684 4.9332123 0.88297576 0
-31.514603 7.321116 0.3766589 0
-20.584711 2.7021098 -1.4517717 0
-17.440134 3.1652172 -1.4469858 0
-37.155567 3.0460389 1.0849606 0
-0 0 0 0
-0 0 0 0
-20.11526 4.682201 -1.20278 0
-45.022213 5.9299517 2.6446278 0
-55.21107 10.045166 2.2862837 0
-24.639769 3.2489915 -1.1576943 0
-22.726595 4.138318 -1.2106353 0
-24.017704 3.17052 2.974587 0
-39.40965 7.1820807 3.270201 0
-28.14048 2.327579 -1.1503878 0
-25.109528 5.8601117 -0.900407 0
-28.110758 3.7191544 7.597892 0
-31.45704 5.742239 5.8302054 0
-36.479443 4.8317604 -0.85626966 0
-3.5048327 0.6445219 -1.661735 0
-37.126564 3.130656 -0.65034646 0
-27.179804 5.002322 -0.80429506 0
-5.806916 0.77773094 -1.6400965 0
-7.903874 1.4558614 -1.6073773 0
-38.059418 5.1030025 0 0
-31.426985 7.397178 -0.3758673 0
-9.965665 1.3376708 -1.5643306 0
-11.694677 2.1576295 -1.5137035 0
-37.073967 3.147944 0.21624969 0
-27.191872 5.0209002 -0.16071104 0
-0 0 0 0
-15.175888 3.5790389 -1.4555041 0
-0 0 0 0
-31.348713 7.398006 0.37498257 0
-20.559336 2.7718148 -1.4506556 0
-17.421139 3.2246242 -1.4463348 0
-37.208447 3.181167 1.0868224 0
-37.118717 6.8761973 0.65893304 0
-22.598742 1.9354091 -1.453627 0
-20.087135 4.7496314 -1.2020824 0
-0 0 0 0
-39.31576 7.2950263 1.6291053 0
-24.497612 3.3172867 -1.1515522 0
-22.625608 4.201578 -1.2060298 0
-24.037964 3.2586048 2.9784868 0
-39.309864 7.3057613 3.264017 0
-28.080418 2.4213297 -1.148271 0
-25.034462 5.934815 -0.89845264 0
-23.583763 3.2040195 6.377301 0
-30.721102 5.7187805 5.6974726 0
-36.264233 4.932122 -0.85161704 0
-3.538193 0.6634332 -1.6786398 0
-37.191105 3.2668822 -0.65167284 0
-32.156845 6.03445 -0.95219135 0
-5.796534 0.7969468 -1.6379399 0
-7.8987436 1.4834422 -1.6073773 0
-38.148365 5.2505493 0 0
-31.253149 7.4714947 -0.37409785 0
-9.941358 1.3697519 -1.5612559 0
-11.6792755 2.1969712 -1.5126933 0
-37.102596 3.2808604 0.21648216 0
-33.636547 6.3323865 -0.19893019 0
-0 0 0 0
-15.13619 3.6254969 -1.4529017 0
-0 0 0 0
-31.198233 7.477556 0.3734925 0
-20.419098 2.8255143 -1.4414477 0
-17.390188 3.2817192 -1.4447076 0
-37.284733 3.3188283 1.0893823 0
-36.925503 6.973809 0.65593123 0
-22.587873 2.013927 -1.4533712 0
-20.06655 4.818787 -1.2018498 0
-44.38642 6.161757 2.6097443 0
-39.266495 7.4277625 1.6281284 0
-0 0 0 0
-22.571556 4.273101 -1.2039363 0
-24.223059 3.3698459 3.0028605 0
-39.295876 7.4451604 3.2649937 0
-28.167332 2.527908 -1.1521789 0
-24.974728 6.0128083 -0.89705664 0
-23.71785 3.3065956 6.4166417 0
-31.485777 5.9749146 5.84312 0
-36.048767 5.031041 -0.8469644 0
-3.5002477 0.66897434 -1.661735 0
-37.251167 3.403233 -0.6529294 0
-32.025623 6.1256294 -0.94893324 0
-5.7899027 0.81663764 -1.6368616 0
-7.878108 1.5080552 -1.6042395 0
-38.2011 5.3937464 0 0
-31.098612 7.5494056 -0.37256122 0
-9.944343 1.4055517 -1.5624858 0
-11.659844 2.2354846 -1.5111781 0
-37.230328 3.4231708 0.21729583 0
-33.45318 6.418858 -0.19797702 0
-0 0 0 0
-15.107964 3.674545 -1.4514146 0
-0 0 0 0
-31.016489 7.54858 0.37162995 0
-20.397259 2.8950908 -1.4406106 0
-17.359053 3.3386374 -1.4430803 0
-37.340603 3.4552188 1.0913604 0
-36.73206 7.0701556 0.6529294 0
-22.580706 2.0927613 -1.4533712 0
-20.037968 4.8859653 -1.2011522 0
-23.965288 3.4121883 1.409755 0
-39.354134 7.586723 1.6328504 0
-24.252338 3.4566574 -1.1411293 0
-22.489826 4.3389997 -1.2003775 0
-0 0 0 0
-39.390995 7.6057134 3.2750828 0
-28.174253 2.6276996 -1.1528302 0
-24.899221 6.08666 -0.89510226 0
-27.443 3.9236372 7.428107 0
-29.973398 5.796385 5.5661745 0
-35.833057 5.1285157 -0.8423118 0
-3.4943328 0.68049544 -1.6600446 0
-37.31471 3.5404205 -0.6542558 0
-31.949104 6.2266746 -0.9473041 0
-5.7832046 0.8362919 -1.6357833 0
-7.8612466 1.5332931 -1.601886 0
-27.552824 3.9884229 0 0
-30.940031 7.625372 -0.37097803 0
-9.911995 1.4362878 -1.5581814 0
-11.648076 2.275411 -1.510673 0
-37.269913 3.5580497 0.21759805 0
-33.273544 6.5048947 -0.19704711 0
-0 0 0 0
-15.079579 3.7234404 -1.4499274 0
-0 0 0 0
-30.861813 7.6251426 0.37009332 0
-20.363337 2.9628258 -1.4389366 0
-17.315994 3.3930786 -1.4404767 0
-48.484222 4.6571126 1.4175235 0
-36.5384 7.1652374 0.6499276 0
-22.565315 2.1708052 -1.4528595 0
-19.985905 4.9472456 -1.1990591 0
-23.878157 3.484865 1.4053364 0
-39.382317 7.734832 1.63513 0
-24.018717 3.508947 -1.1307063 0
-22.400072 4.40284 -1.1963999 0
-24.092876 3.5233598 2.9896986 0
-39.454178 7.760865 3.2825682 0
-0 0 0 0
-24.827385 6.1610208 -0.89328754 0
-24.309671 3.562287 6.583321 0
-30.161472 5.94205 5.604918 0
-27.656475 4.0568295 -0.6504374 0
-3.4883802 0.6919834 -1.658354 0
-37.385708 3.6788766 -0.65572184 0
-31.789911 6.31091 -0.94323146 0
-5.7764397 0.8559094 -1.634705 0
-7.8558464 1.5607246 -1.601886 0
-27.487297 4.0769467 0 0
-30.773539 7.698382 -0.36930174 0
-9.895192 1.469137 -1.5563368 0
-11.616712 2.3114102 -1.5076426 0
-48.271248 4.778406 0.2819243 0
-33.14472 6.5999103 -0.19641943 0
-0 0 0 0
-15.0549 3.7731507 -1.4488121 0
-0 0 0 0
-30.706982 7.7007174 0.3685567 0
-20.337084 3.0315359 -1.4378204 0
-17.280586 3.4488204 -1.4385239 0
-48.46767 4.826326 1.4175235 0
-36.458256 7.28177 0.6489503 0
-22.5576 2.2495596 -1.4528595 0
-19.910421 5.0023837 -1.1955708 0
-23.822403 3.561699 1.4027783 0
-39.449135 7.891069 1.639038 0
-23.832449 3.5667448 -1.1225169 0
-22.161308 4.4363117 -1.1844673 0
-23.923376 3.5839102 2.9701996 0
-39.524574 7.9181166 3.2907047 0
-27.992176 2.8079717 -1.1461542 0
-24.755333 6.2349544 -0.89147276 0
-0 0 0 0
-0 0 0 0
-27.657965 4.1557207 -0.6508096 0
-3.4859436 0.7041559 -1.658354 0
-37.440277 3.8162491 -0.6569086 0
-0 0 0 0
-5.7734165 0.8760677 -1.634705 0
-7.854195 1.5889149 -1.6026706 0
-27.409624 4.1632595 0 0
-30.618547 7.773276 -0.3677651 0
-9.886096 1.5030745 -1.5557218 0
-11.596906 2.3495822 -1.5061274 0
-48.453228 4.9672713 0.2830867 0
-27.331392 5.5415945 -0.16208264 0
-0 0 0 0
-15.018479 3.819789 -1.4465815 0
-23.395166 3.5674279 0.55068505 0
-30.56363 7.7782636 0.36715975 0
-20.338213 3.1043131 -1.4386575 0
-17.248909 3.50515 -1.4368966 0
-25.672974 2.6470058 0.7511176 0
-27.363655 5.5647116 0.4874108 0
-22.557552 2.3291068 -1.4533712 0
-19.923794 5.079746 -1.1974313 0
-23.782194 3.640603 1.4011505 0
-39.523174 8.049461 1.6432714 0
-23.748762 3.6390204 -1.1191666 0
-22.004782 4.4849234 -1.176931 0
-23.7459 3.6421165 2.9497256 0
-39.60216 8.077547 3.2994921 0
-27.958353 2.9031887 -1.1451772 0
-20.596981 5.2641444 -0.7423821 0
-24.123816 3.7072637 6.5398397 0
-30.439262 6.2178383 5.664469 0
-0 0 0 0
-3.5225246 0.72435194 -1.6769493 0
-0 0 0 0
-0 0 0 0
-5.7589045 0.89444184 -1.6314701 0
-7.8409176 1.6147392 -1.6011015 0
-27.379114 4.256454 0 0
-20.567158 5.2979703 -0.2472566 0
-9.857356 1.5339279 -1.5520324 0
-11.569202 2.3860412 -1.503602 0
-0 0 0 0
-27.30013 5.6345396 -0.1620129 0
-0 0 0 0
-14.989629 3.8682091 -1.4450943 0
-23.56037 3.676818 0.5548724 0
-20.57569 5.312935 0.2473963 0
-20.319368 3.1740563 -1.4380995 0
-17.213144 3.5604935 -1.4349438 0
-25.615868 2.7315176 0.7497212 0
-27.344063 5.660195 0.4874108 0
-22.398453 2.3917272 -1.4436495 0
-19.929136 5.155262 -1.1988267 0
-23.789068 3.7266865 1.4023132 0
-39.596584 8.2084675 1.647505 0
-23.641176 3.7070415 -1.1146996 0
-21.863832 4.535742 -1.1702319 0
-23.685974 3.7175958 2.9438758 0
-38.402676 7.9726186 3.2018547 0
-25.396841 2.7268424 -1.040641 0
-20.512697 5.3189516 -0.74000895 0
-24.068745 3.7848468 6.5284514 0
-0 0 0 0
-27.474218 4.3244576 -0.64718056 0
-3.473846 0.72698987 -1.6549731 0
-25.524939 2.7819111 -0.44817778 0
-31.338615 6.5629153 -0.93182796 0
-0 0 0 0
-7.827579 1.6403763 -1.5995326 0
-23.587606 3.7510333 0 0
-20.533176 5.3652377 -0.24707034 0
-9.828556 1.5643845 -1.5483428 0
-11.545341 2.4228148 -1.5015817 0
-25.566616 2.8007524 0.14948241 0
-27.315735 5.736207 -0.16222213 0
-0 0 0 0
-14.953089 3.913805 -1.4428637 0
-23.464628 3.7447743 0.5529183 0
-20.57664 5.3887453 0.24762912 0
-20.280746 3.239525 -1.4361463 0
-17.173512 3.6138096 -1.4326656 0
-25.59442 2.8181145 0.7493722 0
-0 0 0 0
-22.382195 2.4675574 -1.4431379 0
-19.853462 5.2081494 -1.1953382 0
-23.961512 3.8376548 1.4132433 0
-21.849024 4.6071324 0.9097263 0
-23.431131 3.75603 -1.1053934 0
-21.74274 4.5878596 -1.1645797 0
-23.555584 3.7793186 2.9292514 0
-21.898695 4.6239276 1.8271207 0
-25.53044 2.828923 -1.0465027 0
-20.475224 5.383353 -0.7393109 0
-23.987114 3.855354 6.5098166 0
-30.588314 6.467578 5.7003427 0
-27.455488 4.4167037 -0.6470875 0
-3.4572325 0.7354882 -1.6482112 0
-25.483778 2.8629675 -0.44761932 0
-21.88801 4.659761 -0.65127885 0
-5.7450786 0.93238634 -1.6293135 0
-7.8259087 1.6672555 -1.6003171 0
-0 0 0 0
-20.51902 5.4347706 -0.24711691 0
-9.815477 1.5959142 -1.5471131 0
-11.517768 2.457283 -1.4990563 0
-25.580952 2.8889556 0.1496219 0
-21.898104 4.6752286 -0.13014036 0
-0 0 0 0
-14.924457 3.959936 -1.4413766 0
-23.475595 3.8274496 0.55347663 0
-20.531319 5.4508123 0.24730317 0
-20.218529 3.2994378 -1.432519 0
-17.130032 3.6650646 -1.4300619 0
-25.584764 2.9044616 0.7493722 0
-21.841576 4.6764474 0.38988677 0
-22.326126 2.53782 -1.440068 0
-19.843416 5.2774525 -1.1958034 0
-43.238686 7.0754404 2.5516055 0
-21.876238 4.6905246 0.91151744 0
-23.22897 3.8045835 -1.0964594 0
-21.644983 4.6442337 -1.1601834 0
-23.546503 3.8601077 2.929739 0
-39.349277 8.448924 3.2854974 0
-25.453136 2.9082692 -1.0437347 0
-20.476017 5.458453 -0.74000895 0
-18.483614 3.035642 5.019019 0
-30.835285 6.630217 5.7505655 0
-23.415321 3.8490946 -0.5521739 0
-3.4723604 0.7513853 -1.6566635 0
-25.497467 2.9546673 -0.4480382 0
-21.895058 4.741213 -0.65197706 0
-5.741789 0.9524347 -1.6293135 0
-7.8047075 1.6912402 -1.5971792 0
-23.490444 3.900051 0 0
-20.542416 5.5177755 -0.24762912 0
-0 0 0 0
-11.485853 2.4924238 -1.4960259 0
-25.586603 2.9800832 0.1497149 0
-0 0 0 0
-0 0 0 0
-14.899005 4.0089035 -1.4402612 0
-23.43448 3.9047704 0.5528253 0
-20.558512 5.5349245 0.24786194 0
-20.202951 3.369337 -1.4322399 0
-17.089865 3.7189033 -1.4277837 0
-25.566526 2.9928217 0.7491394 0
-35.369587 7.702118 0.6318469 0
-22.325062 2.6166668 -1.4405797 0
-19.859573 5.3560452 -1.1978964 0
-43.410652 7.259259 2.5632331 0
-38.400963 8.373935 1.6012616 0
-23.093382 3.8651972 -1.0906895 0
-21.597418 4.7129474 -1.1585088 0
-39.17971 6.5634646 4.8776984 0
-39.24554 8.570067 3.2793138 0
-25.438862 2.9966319 -1.0435718 0
-20.503147 5.5424123 -0.7416841 0
-18.499578 3.1046195 5.0262656 0
-28.274725 6.1829824 5.277032 0
-23.362307 3.9241817 -0.55124336 0
-3.4555542 0.76038516 -1.6499017 0
-25.506853 3.0460234 -0.44838724 0
-21.858816 4.813472 -0.65139526 0
-5.730827 0.971226 -1.6271569 0
-7.7872405 1.7160546 -1.5948259 0
-23.47663 3.9823658 0 0
-29.827293 8.124165 -0.35989574 0
-9.765094 1.6579976 -1.540964 0
-11.47701 2.5328357 -1.4960259 0
-0 0 0 0
-32.058933 7.080149 -0.19081675 0
-0 0 0 0
-14.8616905 4.0552454 -1.4380306 0
-37.758266 6.4287066 0.8912574 0
-29.806892 8.138169 0.35970947 0
-20.194826 3.4415362 -1.432519 0
-17.041527 3.771775 -1.4248546 0
-53.31457 6.43289 1.5628599 0
-35.209213 7.798442 0.6294734 0
-22.17691 2.679283 -1.4316256 0
-19.828806 5.4236174 -1.1971987 0
-43.38451 7.413902 2.5632331 0
-38.41374 8.520517 1.6030527 0
-22.973093 3.9294422 -1.0856642 0
-21.627213 4.800578 -1.1610209 0
-30.750315 5.2645335 3.8305972 0
-39.08224 8.681322 3.268248 0
-25.471598 3.0931156 -1.045363 0
-24.48103 6.71218 -0.8864472 0
-18.602549 3.190653 5.057324 0
-28.163937 6.265071 5.26053 0
-23.316498 4.0028415 -0.55049896 0
-3.4598193 0.7746294 -1.6532826 0
-37.880074 4.664511 -0.66619325 0
-31.12298 6.972734 -0.92822075 0
-5.723448 0.9914832 -1.6260786 0
-7.7771215 1.7435004 -1.5940413 0
-23.497465 4.0738525 0 0
-29.682018 8.200179 -0.3584988 0
-9.766813 1.6947029 -1.5421938 0
-11.456184 2.5716095 -1.4945107 0
-53.49139 6.616885 0.31326213 0
-31.869379 7.1584563 -0.18984035 0
-0 0 0 0
-14.827893 4.1030827 -1.4361718 0
-37.857155 6.5850058 0.89414203 0
-29.61966 8.200574 0.35780033 0
-20.209953 3.5182667 -1.4344721 0
-17.004698 3.8269768 -1.4229019 0
-53.458054 6.6427617 1.5677471 0
-35.01756 7.885929 0.6265414 0
-0 0 0 0
-19.824986 5.4976444 -1.1981289 0
-43.47616 7.587153 2.5702097 0
-39.05033 8.805446 1.6308964 0
-22.923754 4.003756 -1.083989 0
-21.61422 4.876921 -1.1612302 0
-30.766949 5.3779926 3.8349845 0
-39.121826 8.832928 3.2741065 0
-0 0 0 0
-24.380617 6.775475 -0.88365525 0
-0 0 0 0
-31.043903 7.0181108 5.8029413 0
-0 0 0 0
-3.4572315 0.7860983 -1.6532826 0
-0 0 0 0
-31.033358 7.061049 -0.9262426 0
-0 0 0 0
-7.755974 1.7659105 -1.5909035 0
-0 0 0 0
-29.538929 8.266871 -0.35710186 0
-0 0 0 0
-11.432043 2.6063905 -1.4924904 0
-0 0 0 0
-31.693113 7.2305593 -0.18893369 0
-0 0 0 0
-14.79485 4.1475024 -1.4343128 0
-0 0 0 0
-29.472496 8.266771 0.35635683 0
-0 0 0 0
-16.952824 3.8754494 -1.4196473 0
-53.467064 6.8271585 1.5686779 0
-34.838646 7.9695163 0.6238188 0
-0 0 0 0
-19.817774 5.568037 -1.1988267 0
-0 0 0 0
-39.098118 8.955861 1.6341531 0
-0 0 0 0
-21.581923 4.9468846 -1.1603929 0
-30.459234 5.4311013 3.798911 0
-39.200275 8.991263 3.2832193 0
-0 0 0 0
-24.299599 6.8425136 -0.8815613 0
-0 0 0 0
-28.8796 6.632881 5.4025903 0
-0 0 0 0
-3.461531 0.7997937 -1.6566635 0
-0 0 0 0
-30.918922 7.1486173 -0.9235663 0
-0 0 0 0
-7.745941 1.7920891 -1.590119 0
-0 0 0 0
-29.375214 8.331732 -0.35547212 0
-9.727786 1.7564405 -1.5378894 0
-11.403547 2.641802 -1.4899651 0
-0 0 0 0
-31.527403 7.3086257 -0.18809678 0
-0 0 0 0
-14.757297 4.19259 -1.4320822 0
-37.40979 6.7715354 0.8846507 0
-29.324194 8.335697 0.35491335 0
-20.134308 3.6475296 -1.4308448 0
-16.919775 3.930092 -1.41802 0
-45.0901 5.9175444 1.3235029 0
-34.662582 8.05667 0.62116605 0
-22.46445 2.9515183 -1.4520919 0
-19.786695 5.6338997 -1.1981289 0
-55.009457 9.9903 3.2560177 0
-39.17172 9.116746 1.6385494 0
-22.852394 4.153671 -1.0819417 0
-21.552853 5.0194716 -1.1597648 0
-29.373732 5.3434076 3.66583 0
-39.18418 9.131662 3.284521 0
-26.622862 3.513633 -1.0940489 0
-24.210215 6.908645 -0.8791881 0
-18.519047 3.3743856 5.0438657 0
-28.630173 6.6808887 5.360259 0
-27.211739 4.9623847 -0.6436446 0
-3.4763644 0.81601405 -1.665116 0
-0 0 0 0
-30.839289 7.243701 -0.9219372 0
-0 0 0 0
-7.73582 1.8182191 -1.5893345 0
-0 0 0 0
-29.234472 8.40218 -0.35412174 0
-0 0 0 0
-11.386531 2.6797738 -1.4889549 0
-0 0 0 0
-31.369322 7.387458 -0.18730636 0
-0 0 0 0
-14.719608 4.2374663 -1.4298515 0
-0 0 0 0
-29.168083 8.401474 0.35337672 0
-0 0 0 0
-16.882671 3.9836357 -1.4160672 0
-0 0 0 0
-34.478554 8.140855 0.6183737 0
-21.95556 2.9626555 -1.4198574 0
-19.805277 5.714003 -1.2004545 0
-0 0 0 0
-39.25634 9.281012 1.6434343 0
-22.853472 4.236328 -1.0826862 0
-21.461342 5.077202 -1.1557872 0
-29.249504 5.426356 3.652668 0
-38.116238 9.023175 3.1976237 0
-26.111416 3.5389102 -1.0735323 0
-24.109146 6.970905 -0.8763962 0
-18.564135 3.449597 5.059395 0
-28.231434 6.6918397 5.2899466 0
-27.162798 5.0514917 -0.64290017 0
-3.484074 0.8306661 -1.6701874 0
-38.113297 5.227649 -0.6714988 0
-30.69325 7.322543 -0.91832995 0
-5.694082 1.0675043 -1.6217654 0
-7.721796 1.8433895 -1.5877656 0
-27.165964 5.0970597 0 0
-29.085918 8.469511 -0.35267827 0
-9.668673 1.8155566 -1.5305105 0
-11.350093 2.7130466 -1.4854194 0
-44.68922 6.1560984 0.26218706 0
-31.203297 7.4634147 -0.18646944 0
-0 0 0 0
-14.681787 4.2821307 -1.4276209 0
-36.72889 6.9134426 0.86966926 0
-29.03491 8.472985 0.35211948 0
-20.0064 3.7687976 -1.4235901 0
-16.841524 4.0360394 -1.413789 0
-0 0 0 0
-34.298252 8.224786 0.6156511 0
-0 0 0 0
-19.79671 5.7864623 -1.2011522 0
-39.18003 7.3984222 2.3220725 0
-38.112244 9.151113 1.5968652 0
-22.84247 4.3168178 -1.0828723 0
-21.44349 5.152085 -1.1557872 0
-30.264156 5.7239423 3.7818494 0
-38.08063 9.155239 3.1972983 0
-25.66742 3.5700202 -1.055784 0
-24.023285 7.037039 -0.8741626 0
-23.069447 4.3701386 6.2913733 0
-37.71511 9.078967 7.072873 0
-33.604164 6.3708363 -0.7958785 0
-3.470583 0.8402636 -1.665116 0
-38.189865 5.3740325 -0.6731742 0
-30.535383 7.3976297 -0.9143737 0
-5.697888 1.0888199 -1.623922 0
-7.7076902 1.8684843 -1.5861967 0
-33.51659 6.4098 0 0
-29.02165 8.560803 -0.3522592 0
-9.646749 1.8463236 -1.5280509 0
-11.328985 2.7498412 -1.4839041 0
-27.533974 3.8908856 0.1616177 0
-31.044899 7.540191 -0.18567902 0
-0 0 0 0
-14.659111 4.3310966 -1.4268774 0
-36.50817 7.0039363 0.8650166 0
-29.032007 8.582222 0.35244542 0
-19.96961 3.8340957 -1.421916 0
-16.796345 4.0872617 -1.4111854 0
-0 0 0 0
-34.12167 8.308503 0.6129983 0
-21.79997 3.0967727 -1.4111592 0
-19.807022 5.8646 -1.2030126 0
-0 0 0 0
-37.986877 9.2613735 1.5929573 0
-22.752716 4.382169 -1.0793359 0
-21.374926 5.2145977 -1.1530658 0
-30.438911 5.8671203 3.8062234 0
-37.831554 9.235165 3.1790726 0
-25.623148 3.6550791 -1.0544814 0
-23.91426 7.0958357 -0.8710914 0
-23.016115 4.4433155 6.2810206 0
-28.119043 6.8728843 5.2777495 0
-33.581722 6.4880977 -0.7958785 0
-3.4746697 0.85410374 -1.6684968 0
-27.590065 3.9807045 -0.4865731 0
-30.381248 7.472659 -0.9105337 0
-5.6902714 1.1079664 -1.6228436 0
-7.6896954 1.8925656 -1.5838432 0
-33.33304 6.495388 0 0
-28.742489 8.587629 -0.3492325 0
-9.632485 1.8784728 -1.526821 0
-11.303906 2.7855725 -1.4818839 0
-27.520226 3.9869733 0.1616177 0
-30.886347 7.615953 -0.1848886 0
-0 0 0 0
-14.586671 4.3651133 -1.4213006 0
-36.353985 7.106015 0.86194587 0
-29.082338 8.7076025 0.3534233 0
-19.92086 3.896885 -1.4194047 0
-16.762623 4.141086 -1.4095582 0
-54.131104 7.8743615 1.5919504 0
-33.95269 8.393008 0.6104852 0
-21.59942 3.1452398 -1.3988793 0
-19.797905 5.937145 -1.2037103 0
-39.292007 7.704038 2.3318398 0
-37.806892 9.357427 1.5867698 0
-0 0 0 0
-21.32945 5.2824564 -1.1516004 0
-30.320852 5.9542108 3.7940364 0
-37.679127 9.337437 3.1689835 0
-25.717009 3.7601101 -1.0588778 0
-23.851063 7.167763 -0.8696955 0
-22.791956 4.482621 6.2240806 0
-28.343136 7.032594 5.324385 0
-33.217514 6.538092 -0.78778297 0
-3.4962888 0.8723709 -1.6803302 0
-27.568089 4.0758176 -0.48643348 0
-30.00197 7.4905286 -0.8999448 0
-5.6788125 1.1263236 -1.6206871 0
-7.679237 1.9184455 -1.5830587 0
-33.16107 6.5821095 0 0
-28.402245 8.594078 -0.34546077 0
-9.610363 1.9090047 -1.5243614 0
-11.282566 2.822125 -1.4803686 0
-27.4824 4.0794888 0.1614782 0
-30.723766 7.689729 -0.18407492 0
-0 0 0 0
-14.540853 4.4067626 -1.4183265 0
-36.12502 7.192268 0.85710716 0
-29.15894 8.841562 0.3547271 0
-19.844522 3.9539225 -1.4149404 0
-16.713263 4.1908464 -1.406629 0
-23.743595 3.5386193 0.69863826 0
-33.787415 8.477409 0.6080418 0
-21.454075 3.200591 -1.3901811 0
-19.815268 6.0178204 -1.2060359 0
-39.34711 7.857568 2.3367236 0
-37.684845 9.466944 1.5830247 0
-22.71765 4.5401216 -1.0791498 0
-21.024206 5.2848167 -1.136109 0
-0 0 0 0
-37.73136 9.490299 3.1761436 0
-25.668152 3.8445282 -1.0574123 0
-23.75706 7.230026 -0.8671827 0
-22.586746 4.5242105 6.1723166 0
-0 0 0 0
-33.143517 6.6437855 -0.7865733 0
-3.4721365 0.87923044 -1.6701874 0
-27.54183 4.170227 -0.48622406 0
-29.936882 7.585389 -0.8987811 0
-5.6710706 1.1453769 -1.6196088 0
-7.668691 1.9442754 -1.5822743 0
-33.18886 6.708125 0 0
-28.60535 8.764645 -0.3483012 0
-9.595893 1.9409723 -1.5231316 0
-11.24957 2.8556335 -1.4773382 0
-27.495674 4.179603 0.16164094 0
-20.65187 5.2455463 -0.12384026 0
-0 0 0 0
-14.510152 4.4528193 -1.4168394 0
-26.948376 5.4631195 0.6398294 0
-29.20437 8.966772 0.35565838 0
-19.803226 4.0176153 -1.4129871 0
-16.683077 4.2452283 -1.4053272 0
-23.667858 3.6118276 0.69677645 0
-20.611137 5.247967 0.3712476 0
-21.300714 3.2537603 -1.3809712 0
-19.828493 6.0975156 -1.2081288 0
-39.43684 8.018737 2.3437002 0
-37.698044 9.610279 1.5849787 0
-22.689917 4.617003 -1.0785915 0
-20.823713 5.3117685 -1.1262698 0
-38.148712 7.768377 4.7802033 0
-20.76693 5.3005013 1.7496617 0
-0 0 0 0
-23.64381 7.285833 -0.86397195 0
-23.290115 4.7497168 6.369019 0
-20.961708 5.3567114 3.94468 0
-27.477987 5.607942 -0.6525776 0
-3.462024 0.88954073 -1.6668065 0
-27.511297 4.2638907 -0.4859448 0
-0 0 0 0
-5.670811 1.1659415 -1.6206871 0
-7.6542606 1.9690778 -1.5807054 0
-27.292274 5.615538 0 0
-29.246925 9.073017 -0.35649654 0
-9.581317 1.9728621 -1.5219017 0
-11.220321 2.889936 -1.4748129 0
-23.611534 3.6735466 0.13888149 0
-20.586954 5.305624 -0.123561285 0
-0 0 0 0
-14.464093 4.4939885 -1.4138652 0
-27.124962 5.5975633 0.644482 0
-29.279837 9.101904 0.35696217 0
-19.75782 4.0802608 -1.4107549 0
-16.648857 4.2984543 -1.4036999 0
-23.615602 3.6882522 0.69561285 0
-20.581078 5.31688 0.37103817 0
-21.324722 3.333643 -1.3832737 0
-19.83759 6.176189 -1.2099893 0
-39.498547 8.174963 2.349049 0
-0 0 0 0
-22.618885 4.684832 -1.0759857 0
-20.55755 5.320372 -1.1128718 0
-38.020287 7.880543 4.7675285 0
-20.609362 5.3369794 1.7379452 0
-25.534082 4.0069017 -1.053016 0
-23.52283 7.3385572 -0.860482 0
-0 0 0 0
-20.9086 5.4209604 3.9382226 0
-27.423008 5.696504 -0.65174013 0
-3.4694219 0.90436333 -1.6718779 0
-23.443502 3.7172804 -0.41432014 0
-20.520555 5.3520575 -0.61718476 0
-5.6554046 1.1833214 -1.6174521 0
-7.639779 1.9936922 -1.5791364 0
-27.30391 5.7169333 0 0
-28.360493 8.90599 -0.34606612 0
-9.56281 2.0036547 -1.5200571 0
-11.202572 2.9267526 -1.4738027 0
-23.563126 3.7496 0.13867226 0
-20.525936 5.365578 -0.12330556 0
-0 0 0 0
-14.425721 4.5366507 -1.4116346 0
-35.507977 7.4552007 0.8442659 0
-29.332293 9.228975 0.3579866 0
-19.716331 4.142455 -1.4088018 0
-16.614721 4.3505263 -1.4020725 0
-23.594906 3.7680292 0.69538015 0
-20.535664 5.380248 0.3705495 0
-21.131857 3.3776827 -1.3715055 0
-19.873493 6.2619576 -1.2134776 0
-39.49382 8.314855 2.3504443 0
-20.531878 5.38532 0.8647855 0
-22.520668 4.744652 -1.072077 0
-20.47364 5.373069 -1.1093129 0
-21.797556 4.5954523 2.7352355 0
-20.57955 5.403903 1.7369688 0
-25.449295 4.082201 -1.050085 0
-23.39871 7.38694 -0.8568525 0
-17.39352 3.6719956 4.7633057 0
-18.22988 4.792298 3.4367075 0
-0 0 0 0
-3.4804235 0.9195676 -1.6786398 0
-0 0 0 0
-20.510387 5.4222693 -0.6174175 0
-5.647673 1.2013085 -1.6163739 0
-7.6255126 2.0171206 -1.5775675 0
-21.881763 4.657766 0 0
-28.303925 8.992128 -0.34574017 0
-9.53674 2.0314462 -1.5169824 0
-11.173539 2.959132 -1.4712774 0
-23.518866 3.823268 0.13848628 0
-20.534897 5.441533 -0.123468295 0
-0 0 0 0
-14.376241 4.574224 -1.4082885 0
-21.48596 4.5865827 0.51123077 0
-29.400145 9.359231 0.35919726 0
-19.620327 4.191312 -1.4029422 0
-16.584534 4.402473 -1.4007708 0
-23.62152 3.8540626 0.69654375 0
-20.556005 5.459927 0.3712476 0
-21.100616 3.4459052 -1.3702264 0
-19.840744 6.3256307 -1.21278 0
-21.792469 4.6652703 1.2978956 0
-20.54437 5.463235 0.8660881 0
-21.762093 4.662078 -1.0367135 0
-20.435934 5.437582 -1.1082662 0
-39.42539 8.452071 4.95082 0
-20.54559 5.4699583 1.735667 0
-23.344873 3.8263562 -0.9637856 0
-23.28955 7.440109 -0.8537813 0
-17.49042 3.7549431 4.793329 0
-18.270393 4.869913 3.4474695 0
-21.917826 4.7087784 -0.52165264 0
-3.4666874 0.92889607 -1.6735684 0
-23.354525 3.8663166 -0.41320318 0
-20.529953 5.504185 -0.6185811 0
-0 0 0 0
-7.6108484 2.0416937 -1.5759985 0
-21.795002 4.718883 0 0
-29.536528 9.49736 -0.36119953 0
-9.525728 2.0638864 -1.5163676 0
-11.155478 2.9960582 -1.4702672 0
-23.497484 3.9040296 0.13843979 0
-20.554407 5.5235605 -0.12370077 0
-0 0 0 0
-14.345022 4.6194954 -1.4068015 0
-21.508898 4.6700397 0.5121613 0
-29.458664 9.491237 0.36031482 0
-19.543188 4.2462187 -1.3984778 0
-16.542116 4.4530826 -1.3984926 0
-23.600035 3.9351783 0.696311 0
-29.851377 8.040548 0.5396284 0
-20.899466 3.4879973 -1.3579465 0
-19.818544 6.3948493 -1.21278 0
-38.323666 8.3442335 2.2841659 0
-20.548328 5.541158 0.8670651 0
-21.671509 4.7218513 -1.033177 0
-20.436113 5.5140862 -1.1093129 0
-39.20169 8.547351 4.9264464 0
-20.53407 5.5437207 1.7363179 0
-23.23283 3.8913162 -0.95971483 0
-23.233007 7.511521 -0.85266453 0
-17.564026 3.8349295 4.81714 0
-28.38471 7.672071 5.3609767 0
-21.791866 4.761357 -0.5190472 0
-3.4984078 0.9504964 -1.6904731 0
-23.329056 3.9458146 -0.41299376 0
-29.45025 8.006056 -0.8881922 0
-5.6241007 1.2373964 -1.6120607 0
-7.59989 2.0672185 -1.575214 0
-0 0 0 0
-29.507 9.601642 -0.36124608 0
-9.5068865 2.0945735 -1.5145228 0
-11.129638 3.0308096 -1.4682469 0
-23.542868 3.9960678 0.13878849 0
-29.820326 8.125295 -0.17963463 0
-0 0 0 0
-14.298516 4.6596684 -1.4038272 0
-34.987736 7.724567 0.83375096 0
-29.53183 9.628725 0.3616186 0
-19.458113 4.2989163 -1.3934553 0
-16.48801 4.500301 -1.395238 0
-43.360844 7.3858438 1.2800999 0
-29.730536 8.119412 0.53795296 0
-20.804527 3.546841 -1.352574 0
-19.73157 6.4429183 -1.2088265 0
-38.450256 8.512484 2.293468 0
-35.691303 9.758456 1.507472 0
-21.686102 4.804384 -1.0346661 0
-20.451416 5.5948744 -1.111197 0
-38.977814 8.641173 4.9020724 0
-36.322556 9.942406 3.0742753 0
-23.18759 3.9669983 -0.95841223 0
-23.17625 7.582629 -0.8515477 0
-23.106504 5.129641 6.342102 0
-28.881495 7.9146295 5.459988 0
-32.022453 7.1138678 -0.76331013 0
-3.519534 0.96944124 -1.7023064 0
-23.319082 4.027905 -0.41306356 0
-29.287212 8.071626 -0.8841195 0
-5.6122293 1.2553389 -1.609904 0
-7.585066 2.091649 -1.5736451 0
-31.945532 7.15043 0 0
-29.564482 9.734604 -0.36236364 0
-0 0 0 0
-11.10369 3.065417 -1.4662266 0
-34.347282 5.9533863 0.20260331 0
-29.629848 8.184607 -0.17865823 0
-0 0 0 0
-14.278381 4.7083044 -1.4034554 0
-34.769367 7.8037386 0.8291914 0
-29.592999 9.76308 0.36278272 0
-19.369017 4.350198 -1.3881538 0
-16.456833 4.5535746 -1.3939362 0
-42.08608 7.319969 1.243213 0
-29.57867 8.188994 0.5357191 0
-20.74876 3.61191 -1.3497599 0
-19.693792 6.5067444 -1.2078964 0
-39.04753 8.7878065 2.3309097 0
-35.51452 9.843485 1.5014473 0
-21.715977 4.890588 -1.0368996 0
-20.454857 5.672634 -1.1124531 0
-38.947414 8.777179 4.9020724 0
-36.352936 10.0872555 3.079808 0
-23.189348 4.050665 -0.95906353 0
-23.054766 7.6320753 -0.84805775 0
-20.506742 4.627662 5.632938 0
-18.392807 5.1094203 3.4804735 0
-31.806293 7.182442 -0.75875056 0
-3.4916868 0.9748965 -1.6904731 0
-27.196247 4.795432 -0.48203546 0
-29.054764 8.116792 -0.87795234 0
-5.604057 1.2740676 -1.6088258 0
-7.5777183 2.1181133 -1.5736451 0
-31.779966 7.2299533 0 0
-29.636574 9.87314 -0.36366743 0
-9.457347 2.1529965 -1.5089886 0
-11.089102 3.1030881 -1.4657215 0
-0 0 0 0
-29.489395 8.256709 -0.17798404 0
-0 0 0 0
-14.239192 4.7505536 -1.4012247 0
-34.558674 7.883259 0.8248179 0
-29.66497 9.901777 0.3640865 0
-19.27591 4.400022 -1.3825734 0
-16.413967 4.603456 -1.391658 0
-0 0 0 0
-29.422834 8.256535 0.5334154 0
-20.582747 3.6570804 -1.3397826 0
-19.648235 6.567853 -1.206501 0
-39.01662 8.924055 2.3309097 0
-35.337574 9.927399 1.4954226 0
-21.726038 4.9726014 -1.0382024 0
-20.415705 5.738596 -1.1114063 0
-38.723038 8.86876 4.8776984 0
-36.428802 10.245391 3.0892463 0
-23.214415 4.138601 -0.9606918 0
-22.959753 7.689653 -0.845545 0
-20.445272 4.688852 5.6205144 0
-0 0 0 0
-31.77713 7.2925286 -0.7586575 0
-3.4952393 0.989053 -1.693854 0
-0 0 0 0
-28.849289 8.168057 -0.87259966 0
-5.58081 1.2892865 -1.6034342 0
-7.5551834 2.1402752 -1.5705073 0
-31.618132 7.3093095 0 0
-29.696686 10.008466 -0.36483154 0
-9.465178 2.189559 -1.5114483 0
-11.06675 3.1385295 -1.4642063 0
-0 0 0 0
-29.337257 8.324655 -0.17724012 0
-0 0 0 0
-14.207428 4.7951345 -1.3997377 0
-34.74131 8.052603 0.82984275 0
-29.717384 10.0346985 0.36515749 0
-0 0 0 0
-16.367119 4.6520033 -1.3890543 0
-55.02891 9.96738 1.6275572 0
-29.282276 8.327464 0.53139085 0
-0 0 0 0
-19.598711 6.627444 -1.2048731 0
-39.109695 9.08912 2.3383515 0
-35.279644 10.044123 1.4944457 0
-21.813627 5.0728455 -1.0432278 0
-20.384024 5.806542 -1.1107783 0
-30.58303 7.1168942 3.8554585 0
-36.50784 10.4052725 3.09901 0
-0 0 0 0
-22.875978 7.7505093 -0.843451 0
-0 0 0 0
-18.069096 5.1556425 3.4259453 0
-31.587914 7.3652687 -0.7547493 0
-3.4847958 0.9992491 -1.6904731 0
-0 0 0 0
-28.686087 8.230119 -0.868527 0
-0 0 0 0
-7.540126 2.1644702 -1.5689384 0
-0 0 0 0
-29.76757 10.148203 -0.36613536 0
-0 0 0 0
-11.0480995 3.1749487 -1.4631962 0
-0 0 0 0
-29.181164 8.390534 -0.17647295 0
-0 0 0 0
-14.16422 4.835691 -1.3971353 0
-0 0 0 0
-29.795727 10.1771555 0.36655444 0
-0 0 0 0
-16.327795 4.702487 -1.3871015 0
-39.26667 7.2540207 1.1621087 0
-29.133896 8.395297 0.5292268 0
-0 0 0 0
-19.518782 6.67643 -1.2013848 0
-0 0 0 0
-35.301968 10.183827 1.4968882 0
-0 0 0 0
-20.34828 5.873229 -1.109941 0
-30.689367 7.254659 3.8720329 0
-36.547897 10.554768 3.1055193 0
-0 0 0 0
-22.803406 7.814762 -0.84177583 0
-0 0 0 0
-18.342073 5.302839 3.481191 0
-31.336319 7.4220304 -0.7493523 0
-3.4917305 1.0144415 -1.6955445 0
-0 0 0 0
-28.5612 8.3023 -0.86561793 0
-0 0 0 0
-7.51746 2.1863954 -1.5658004 0
-0 0 0 0
-29.822714 10.283341 -0.3672529 0
-9.430438 2.250996 -1.5083737 0
-11.014091 3.2068388 -1.4601657 0
-0 0 0 0
-29.048008 8.462139 -0.17584527 0
-0 0 0 0
-14.128431 4.8786044 -1.3952763 0
-36.057148 8.623282 0.86269027 0
-29.850752 10.312445 0.36767197 0
-18.949368 4.5347686 -1.3624835 0
-16.292145 4.7538695 -1.3854742 0
-39.115376 7.3673606 1.158385 0
-29.02763 8.474526 0.5278306 0
-20.508017 3.865763 -1.3374801 0
-17.6613 6.1100206 -1.0883625 0
-39.134605 9.3833475 2.3437002 0
-36.528316 10.67586 1.5504589 0
-21.808764 5.232466 -1.0447168 0
-20.32382 5.943101 -1.1097317 0
-30.52874 7.329302 3.8549712 0
-35.374413 10.349788 3.0088582 0
-24.846668 4.69857 -1.0302199 0
-22.715553 7.873367 -0.83954227 0
-23.182512 5.572761 6.3886895 0
-18.161064 5.3192697 3.4503396 0
-31.143036 7.4911547 -0.745351 0
-3.488168 1.0266237 -1.6955445 0
-0 0 0 0
-28.482183 8.387264 -0.8641052 0
-0 0 0 0
-7.502257 2.2104058 -1.5642315 0
-0 0 0 0
-29.903715 10.428207 -0.3686964 0
-0 0 0 0
-10.991412 3.241898 -1.4586505 0
-0 0 0 0
-29.041311 8.570276 -0.17598474 0
-0 0 0 0
-14.092516 4.9213266 -1.3934175 0
-0 0 0 0
-29.924074 10.454838 0.36902234 0
-18.976074 4.611251 -1.3655528 0
-16.26398 4.80732 -1.3844979 0
-0 0 0 0
-29.0554 8.5928135 0.52887774 0
-20.176868 3.876323 -1.3167578 0
-17.700172 6.1927323 -1.0920833 0
-0 0 0 0
-34.597687 10.242829 1.4700214 0
-21.642845 5.272622 -1.037644 0
-20.29529 6.0117393 -1.1093129 0
-27.9842 6.821812 3.5366483 0
-35.280735 10.456211 3.0039763 0
-24.610346 4.742918 -1.0211015 0
-22.627573 7.931453 -0.8373087 0
-22.063139 5.3852134 6.0853534 0
-18.244246 5.412852 3.4697113 0
-30.972961 7.5647135 -0.7419081 0
-3.474141 1.0356864 -1.6904731 0
-33.327057 6.4781237 -0.59261394 0
-28.372395 8.462222 -0.8616616 0
